0.132828655158;0.486851793285;9.99980504557;-0.0327297802354;0.987183441396;-0.154527152911;-0.0227809905829
0.129779445407;0.484416633815;9.91011486482;-0.0342515469877;0.99547695927;-0.0320673262883;-0.0826083632322
0.117588945168;0.435781199693;9.8925118441;-0.0346731919978;0.995099187465;-0.0121997637523;-0.0917962015991
0.10983408644;0.470310949185;9.84468445946;-0.0325169784707;0.996084077872;0.014292776445;0.0809621668585
0.100310776826;0.477023776743;9.7878751378;-0.0327014179191;0.99235779001;-0.0130381489045;-0.118265128191
0.102300915115;0.471239196349;9.99994117082;-0.0331387106737;0.996285013882;-0.0645622160543;-0.0463650431653
0.0975051809695;0.460800195366;9.9942431975;-0.0351832531703;0.995211490475;0.0903616735009;-0.0122880383004
0.0968789345346;0.483529220142;9.98249755716;-0.032549641065;0.994546739744;0.0990217285141;0.00346419018609
0.0972827556737;0.509510770587;9.97668019401;-0.0314391268019;0.990369116182;0.132188298011;0.0265866298566
0.0927693813451;0.540237513419;10.0073573156;-0.033849249359;0.996763903509;0.0716516370776;-0.0134904367755
0.0949143992917;0.532400128495;9.83525010443;-0.0312865608465;0.996813574605;-0.00172288276144;0.0733544836263
0.0973284976919;0.555012592251;9.95419354846;-0.0306925987678;0.99069998225;-0.132485920536;-0.00435779889003
0.0975426152417;0.545061034061;9.93159606835;-0.0269294827302;0.996343521349;0.081059759329;-0.00192505660763
0.0947085366814;0.549624345361;9.92951047327;-0.0290494850107;0.993677775978;0.107453583541;0.0146400933405
0.0943147443589;0.575051032504;9.93735203377;-0.0296846552269;0.994512372783;0.100293742995;0.00226423109399
0.0949045755913;0.574889970706;9.94161265174;-0.0311010890464;0.991830195322;0.123486221721;-0.00753252629281
0.0923398750673;0.567791763015;9.94253495614;-0.0313788585445;0.994497332816;0.0995730075325;0.00869703561649
0.0876703019773;0.612145248313;9.89836878722;-0.0350428138694;0.992165873808;0.116244134054;0.0294309589471
0.0783210786057;0.602120107197;9.92504461829;-0.034356803019;0.99678032587;0.0685210659599;-0.0235256363429
0.0741719147553;0.616136469206;9.883045224;-0.0385787595342;0.996725800314;0.0654670187911;0.0276301963949
0.0736641362414;0.630293324044;9.87931919874;-0.0369813129376;0.997544703691;0.0518042498389;0.0292107228713
0.0666770533743;0.638306405671;9.90160904211;-0.0336046060435;0.991573284973;-0.124455982625;0.0128007565865
0.0661769043185;0.642935530308;9.89858079017;-0.0319764660873;0.993590730914;-0.10841495847;-0.0010778858112
0.0679815670761;0.658018126518;9.9006286494;-0.0333354366906;0.993094575727;-0.112024489497;-0.0101205768493
0.0697457732524;0.668896566088;9.87772967126;-0.0352512506501;0.989252549489;-0.136980168673;-0.0370563900939
0.0688443645029;0.675054284235;9.89032733402;-0.0378206312801;0.991655857065;-0.120313314351;-0.0267014491613
0.0658954420897;0.690307464947;9.91289532931;-0.0363556739913;0.993046895269;-0.107933356813;-0.0297744731774
0.0658379053695;0.699847645085;9.89002008956;-0.0410537197526;0.996909305091;0.0615945321923;0.026316214034
0.0723599934581;0.700898415169;9.86724975916;-0.0448611669286;0.997975066836;0.0443532482055;0.00812594911804
0.0715651109677;0.71013355591;9.86978904949;-0.0448628076887;0.996364138001;0.0701599083087;0.017983888837
0.0736017176378;0.706503874233;9.86124112385;-0.0459335106994;0.996675844982;0.0666177175179;0.00945792456659
0.0716685046143;0.706674879433;9.88164216969;-0.0468115291207;0.997811783301;0.0466076597675;-0.00283758654678
0.0712470063117;0.70436977926;9.89610577237;-0.0465213951111;0.997830607935;0.0465418342285;0.00192232434438
0.0727284232826;0.700122806325;9.88767170799;-0.0470124755681;0.997387755715;0.0541680285281;0.00856250986701
0.0677185112822;0.694039564719;9.91515832897;-0.0488798753702;0.996093714287;0.0716646774765;0.0164998225168
0.0683933680211;0.683218354411;9.89854483626;-0.0472230934558;0.997181134059;0.0583059586977;-0.000424855907497
0.0716344252748;0.69812473047;9.89997390845;-0.0486634291833;0.992613620253;-0.111011093997;-0.00515834843623
0.0801903652053;0.695975835546;9.89064219544;-0.0441756201079;0.99734850106;0.057560508196;0.00559195107627
0.0878548945132;0.693068218295;9.83350662868;-0.0415940537149;0.99629166881;0.0665120386618;0.0353411101765
0.0887956640484;0.688071373772;9.83393404367;-0.0414452163536;0.996447124646;0.0672030856765;0.0293115523488
0.0976153961941;0.687425148193;9.88188089674;-0.0347047894038;0.992094073379;-0.12013240843;-0.0106363341381
0.101367021547;0.688989763517;9.83436987507;-0.0407307184221;0.996887315963;0.0589065794453;0.0329651747487
0.101863015754;0.686129313076;9.87136955241;-0.0426264636935;0.998339969561;0.0387093857889;-0.00136865667952
0.0983847880194;0.680192152202;9.82760639024;-0.0400263566896;0.998010260512;0.0287786123598;-0.039309059439
0.0991476603764;0.689803637993;9.84442662563;-0.03963737494;0.997775177664;0.052187723024;0.0122480574613
0.0963061025525;0.69235168418;9.85889819182;-0.0383351868624;0.99762146246;0.057232627165;-0.00250149443133
0.100341613289;0.683839190018;9.86682332048;-0.0384278640985;0.997863701139;0.0523258709548;0.00730317998946
0.102396499849;0.676621826454;9.84177425746;-0.0375009227055;0.996633848805;0.0663618678515;0.0301787128081
0.0975248824957;0.677731254039;9.87195764735;-0.0326556582948;0.997260985302;0.0640317008744;-0.0174377882253
0.101062579662;0.670001764105;9.8808834832;-0.035770394156;0.989817953122;-0.132718201977;-0.0369699532513
0.100531240647;0.66463667446;9.85021499234;-0.0334080996187;0.99735123729;0.0592993210991;0.0256514886961
0.0995665369208;0.666991009561;9.88435315932;-0.0348036154201;0.992665669369;-0.11508734386;-0.0125889035756
0.104934113208;0.643404760383;9.80674544817;-0.0349563136167;0.996162342007;0.0611467634692;0.0519588089043
0.104305408248;0.638975843745;9.80950812746;-0.0323967234765;0.990119717814;-0.115734621656;-0.0722419134103
0.103997608183;0.638677389827;9.83692149989;-0.0359322505387;0.990791120405;-0.116634657864;-0.0586360442224
0.105639812624;0.64219404676;9.87778495217;-0.0366924836188;0.997803642754;0.0548929288517;0.00532151441876
0.113053095031;0.635947639096;9.88638147951;-0.0308824436512;0.990430897129;-0.134509361285;0.000380018299083
0.108858785798;0.632525052533;9.88038759306;-0.0369573036486;0.997196671129;0.0650029746641;0.00275137799283
0.103585968874;0.635283176943;9.87154961042;-0.0421846918335;0.99717839062;0.0571875533564;0.0241928253073
0.103111990304;0.627037128532;9.88422014486;-0.0420214817252;0.996898999852;0.0656910401795;0.0105482893214
0.103814038732;0.625255250748;9.86863357966;-0.0408534602326;0.990637649408;-0.117342413094;-0.0565579388845
0.100763873671;0.629321750272;9.92374381286;-0.0411037627235;0.991421594329;-0.122772973758;-0.0179025110978
0.101232575909;0.623993004972;9.8919533588;-0.0415614842336;0.992950773892;-0.106842486734;-0.0301012738062
0.102578839029;0.620092841558;9.89078090162;-0.04091670694;0.998738886026;0.0270308570786;0.0107607341137
0.0969056782256;0.620499667835;9.89008194966;-0.0360124907453;0.998454388993;0.0324545566564;-0.0271778469251
0.0955653092886;0.614223751069;9.87851274784;-0.0309209762218;0.998502819547;0.0415456238941;-0.0176060705568
0.0933272659075;0.613922710938;9.86380141553;-0.0360016474111;0.997562000146;0.0563310570943;0.0200187225941
0.0878633386902;0.614115599785;9.82748908882;-0.0369950244973;0.995745220098;0.074676454978;0.0393224094801
0.0834370466053;0.611844188862;9.81203201967;-0.0338778505793;0.997049763831;0.0563796502192;0.0395650695213
0.0771074889411;0.619313435087;9.84681670252;-0.03673001932;0.998118078304;0.0263616692414;-0.0414278871955
0.0690458569352;0.620142597292;9.87137472538;-0.039101211341;0.997881388206;0.0519294977558;-0.00267537044059
0.0671506863457;0.614959014962;9.84566942051;-0.0361865854636;0.99744381062;0.0604793348343;0.0117739434973
0.0633993902421;0.609985925164;9.8654680691;-0.0345368300175;0.997517442904;0.0576774825425;-0.0209634558504
0.0620806531625;0.603857570689;9.88092040631;-0.0386185628766;0.99833330174;0.0428719652001;0.00110446310402
0.058020276004;0.594570042747;9.80609691238;-0.040713273976;0.995827750904;0.0656376541935;0.0485923677534
0.0527699725391;0.592183773706;9.86756552103;-0.0382795487469;0.993568771678;-0.10323098538;-0.0264411753202
0.0517690843926;0.608045663812;9.88930076398;-0.0396392871681;0.998349498613;0.020113067455;-0.036365781299
0.0505384141478;0.608848435913;9.88628285151;-0.0335097991523;0.997953786473;0.0394252073871;-0.0375630995359
0.0578855700972;0.612147819922;9.86348137457;-0.0344510924221;0.997791841732;0.0532400908504;0.0197498235649
0.0681895490173;0.607404593902;9.90292335298;-0.0284546970552;0.992805283423;-0.116219491183;0.00458577053023
0.0679588482661;0.630216003889;9.90296221761;-0.0282379417662;0.993205163156;-0.111177947616;-0.0196363563295
0.0668871929594;0.644295428838;9.90435643409;-0.031332086395;0.994003490867;-0.103027469813;-0.018992129188
0.0577414498577;0.670929356537;9.91013289252;-0.0428052427568;0.998313706864;0.0355364151046;0.0165715745316
0.0416501960613;0.686075359271;9.89212349363;-0.0435506503755;0.991011332199;-0.121389973667;-0.0355577642344
0.0265803874518;0.698882687455;9.91025538261;-0.0481733603401;0.996851301727;0.0618625156296;-0.0118253439256
0.0128750322901;0.716652281363;9.96615382749;-0.0523066448428;0.992711184834;-0.1080938886;-0.0102092927506
0.00996005973549;0.725713095734;9.93951014204;-0.0509676808608;0.997122591804;0.0549090330708;0.0115685137233
0.00581369816788;0.733254151351;9.97914995334;-0.0498625032649;0.9962490772;0.0682604841049;0.0184936004338
0.0105375877481;0.730118134726;9.980532821;-0.0449268283379;0.9967505672;0.0668200146416;-0.0022299161072
0.0140754307101;0.739798067493;9.9592437308;-0.0382132983546;0.9972872113;0.0597619385221;0.0196589091773
0.022267410399;0.756960935571;9.97617100098;-0.0356371419688;0.989859590732;-0.137045819179;-0.0112440292412
0.0305314211575;0.762396859444;9.96578286385;-0.0329849620448;0.997922707027;0.0552785099148;0.00255918348425
0.03451183986;0.762753939742;9.91594080363;-0.0259164693542;0.998371053731;0.0490043035537;0.0134964410897
0.0347165398634;0.757585043685;9.90121622221;-0.0247787003219;0.990887205349;-0.12606355407;-0.0404542040059
0.037978528852;0.770982258431;9.97653270375;-0.0283941035269;0.988453527575;-0.147834488129;-0.0172731823805
0.0491499137813;0.766743298274;9.92029119247;-0.0276975546013;0.996154042032;0.0831257951736;0.000268680924939
0.0542957418056;0.76428900436;9.94219259218;-0.0232326198786;0.990805319886;-0.129378562373;-0.0320351534669
0.0598137652247;0.768047133611;9.95424760976;-0.026316812834;0.997992121573;0.0562174096837;0.0125997416009
0.0690739756154;0.763913520203;9.93183014192;-0.0236688663468;0.990656185475;-0.130392054454;-0.032218303505
0.0781690310619;0.754120522289;9.87981813143;-0.0230237879822;0.989864635838;-0.135091537979;-0.0372583449769
0.092034045454;0.759780773204;9.93329743261;-0.0253424252316;0.998686537136;0.0400611219216;0.0194439845871
0.0969926002463;0.753967615668;9.85973670912;-0.0198698686881;0.987461347787;-0.146163805018;-0.0562264799457
0.107918383833;0.743656704596;9.89452392705;-0.0224923219816;0.997584397385;0.0598599572776;0.0271339466582
0.105579137593;0.730669367111;9.91576418988;-0.0254340535351;0.997009011789;0.0670541528908;0.02880763636
0.0966913390487;0.729705750092;9.89635058828;-0.0260992916806;0.996648004734;0.0771154275439;0.00804937693897
0.0963841126302;0.726678798451;9.88209027342;-0.0266211796664;0.997737990436;0.0609797432494;0.00957528835884
0.0954366436231;0.712026343264;9.89906431555;-0.0281971665016;0.9978455346;0.0569095337336;0.016447305249
0.0986036406893;0.687568299714;9.93504888345;-0.0284803561914;0.988617101452;-0.147216344675;-0.012346816922
0.0958625452995;0.686476379482;9.9131171168;-0.0287855396162;0.99597560714;0.0845876013099;0.00699431167969
0.0852443594349;0.670997301787;9.92133660597;-0.0306947173064;0.987689957167;-0.148546573117;-0.0382138516204
0.0848164859891;0.667253140215;9.91854514935;-0.032441780362;0.988951281561;-0.138243282005;-0.0425639350522
0.068951276152;0.653618745164;9.9191625206;-0.0280621854232;0.989738131889;-0.134056836327;-0.0407395221882
0.0506838865937;0.647453897139;9.91619208428;-0.0271259965984;0.99240142715;-0.116747448172;-0.0278140440025
0.0356471169734;0.641777420114;9.927494005;-0.0312801359774;0.99079471244;-0.13113796723;0.0122566082439
0.0305687949243;0.63755508012;9.91542835714;-0.0314506512596;0.997573354018;0.0579479851468;0.0223671836799
0.0164801716483;0.638113447887;9.90207514215;-0.0293548456577;0.997371061837;0.062679862142;0.0214590989548
0.00213970542171;0.620483207705;9.86329179337;-0.028820524007;0.997850589606;0.0452350784503;-0.0376479202241
-0.00748279700965;0.622302353453;9.88141864985;-0.0352390023133;0.996583163589;0.0711602078741;0.0227252191008
-0.0198807290731;0.614946647545;9.84028257607;-0.0385404452541;0.996149643997;0.0641643730581;0.0456448690961
-0.0303454204304;0.609118180361;9.87917409625;-0.0350898093097;0.99757614173;0.0533898893102;-0.0275693027225
-0.0404822708445;0.604506799316;9.88312540783;-0.0404844078177;0.993576533088;-0.105587743193;-0.00423250600899
-0.0514134059912;0.596594548159;9.85399753103;-0.0429286374455;0.996817903853;0.0621494369684;0.0254685321442
-0.0645362225827;0.583914270096;9.84904978164;-0.0446941483008;0.997111704269;0.0564420988986;-0.0241861900674
-0.0745911629323;0.600315948058;9.86919985406;-0.0498568874681;0.997926101026;0.037883113457;-0.0149217082437
-0.0835209928148;0.610937181642;9.84077670972;-0.0459785700497;0.99114701856;-0.124195735835;-0.00943280960334
-0.0795024485706;0.612765248463;9.87210755257;-0.0490398853772;0.998678576237;0.00428634698516;-0.0147586664763
-0.0888476164332;0.630941933485;9.88299299593;-0.050083286756;0.996557810276;0.0641703802848;0.0156957783866
-0.0885307714935;0.631305866337;9.89907112067;-0.0490165584222;0.997261811941;0.0539414066213;0.0125131968702
-0.0832402093542;0.639811435165;9.88224769336;-0.0466842282164;0.996376787323;0.0687463189456;0.0181059148045
-0.08297373915;0.655349651376;9.89609884607;-0.0453815379155;0.996273820293;0.0720424248995;0.0137433630897
-0.0714251478283;0.665618357055;9.89551250383;-0.0443091383919;0.9952456262;0.0858284345172;0.0125029442115
-0.060834835185;0.693504651607;9.93934250948;-0.0377118096018;0.998271198446;0.0377774650636;-0.0246027824432
-0.0604812374112;0.684479754546;9.93430829726;-0.0388821949414;0.99277531864;0.113451206335;-0.00376369455797
-0.0523591684293;0.706577958349;9.89284718642;-0.0419290513693;0.989624398752;0.134754106324;0.0269598752626
-0.0466539177037;0.690678877201;9.9131276928;-0.0353758733214;0.997404644734;0.0596328878224;-0.0194020859608
-0.0349462839749;0.703247300149;9.90194875856;-0.0372630298063;0.988458834672;-0.14180419018;-0.038107353841
-0.000179290266252;0.762512779623;9.90774039316;-0.0345674665355;0.998684777977;0.0348431128281;0.0148243712313
0.0127805312682;0.702897573885;9.89977917021;-0.0356648952067;0.998539916906;-0.0154148710167;-0.0375290733666
0.0287492876715;0.751857570857;9.92245262434;-0.0353771763152;0.998346625226;0.0445256055761;0.00836311808096
0.0322428655599;0.751977165932;9.89501418653;-0.0317881099252;0.998077047095;0.0440359963774;-0.0298756615395
0.0376742722829;0.749392675091;9.8007963952;-0.028808673218;0.990251098865;-0.116107737474;-0.071356953708
0.047526273338;0.72434251162;9.73874705885;-0.0238547095243;0.994649920072;-0.039777767453;-0.0923050299274
0.0502152708874;0.735909303239;9.87342483378;-0.0249404127901;0.993958913303;0.105423537373;0.0175935284485
0.0553676129681;0.755097222405;9.85948113192;-0.0309587938136;0.99116438669;0.126480819407;0.0252450780426
0.0533609467665;0.783263548868;9.8706967611;-0.0307272613032;0.994174684945;0.103256759875;0.00325157930508
0.0488327606331;0.732581253915;9.8306513135;-0.0278516208069;0.998247700628;0.0090435346988;-0.0514201311621
0.0446585405785;0.724313628356;9.65613867804;-0.0309300543684;0.993843456537;-0.0140107501453;-0.105461910263
0.0431747324851;0.743393673337;9.66601677674;-0.0332216286596;0.992922395587;-0.0579929785205;-0.0981746106342
0.0425655915498;0.742251098764;9.66046968913;-0.0351878092745;0.992610736829;-0.0607378892375;-0.0989780380745
0.0425290838298;0.753249330193;9.78653684057;-0.0414052328688;0.995099062249;-0.0800356805139;-0.0407155111361
0.0456924798287;0.746066212821;9.71827865736;-0.0364004334591;0.995663775114;-0.0483438719121;-0.0706507283592
0.0448273679776;0.697767082322;9.52985576391;-0.034446728586;0.992266815114;-0.00127082116068;-0.11924082995
0.0563179816795;0.722568589806;9.78992214832;-0.0416131831287;0.993111432435;0.107929777501;0.0186865963899
0.0744329180237;0.744974224651;9.79432077703;-0.0408899245358;0.998345329994;0.0403930827616;0.00173638016315
0.0865161979149;0.728506147855;9.71690907631;-0.038121068326;0.990832738513;-0.110550688221;-0.0676447616104
0.10050030542;0.727448785901;9.77726109231;-0.041554256942;0.9963137758;0.0750470889914;-0.000195743563155
0.11312101244;0.717768782673;9.77291269412;-0.0408404294994;0.995330323348;0.0872881779247;0.00551187233915
0.130362571236;0.71188219676;9.79115898625;-0.0394679051429;0.996805991831;0.0692622578785;-0.00477899016904
0.145801904175;0.707506061436;9.75714322323;-0.0371988054257;0.98949800838;0.139145387557;0.0121861154241
0.155773012142;0.715834888016;9.73988303006;-0.0410259715828;0.99441781053;0.0972104050022;-0.000474252855005
0.16664284782;0.688480816297;9.74324357732;-0.0372638613481;0.980531298565;-0.186709481732;-0.0480556615032
0.16977543335;0.661659247756;9.72219716794;-0.040785688493;0.995663968111;0.083332367934;0.00674586351067
0.171199260189;0.657282374924;9.72949747089;-0.0423962740171;0.997718241836;0.046603196009;-0.0242694865685
0.165191018493;0.675505361628;9.59838861766;-0.039306056494;0.991216734822;-0.0801395398069;-0.0975811082705
0.16316739552;0.67828488408;9.69798951606;-0.0417582262265;0.995887767923;-0.0405328059753;-0.0694326715916
0.156559343039;0.690261112365;9.69914591979;-0.0443858056674;0.985533642246;-0.157532768968;-0.044008714573
0.151258231416;0.677493403527;9.71366018537;-0.0430861098121;0.996029501279;0.0752817975705;0.0200367332196
0.14021371978;0.674761311568;9.70545273132;-0.046311618465;0.996488789472;0.0684762814607;0.0132787548063
0.127521875438;0.684144810002;9.70586597768;-0.0463028246792;0.992115383504;-0.112814203271;-0.0289148712804
0.118068794013;0.699974133656;9.77356962617;-0.0460256407503;0.995414741867;0.083705408448;0.00495344965319
0.105834085754;0.682701554525;9.74088051687;-0.0458165142672;0.994108557323;0.0974557929976;0.0123041329888
0.101403484683;0.676370527572;9.77905794064;-0.0451172759764;0.997935191497;0.0448377460118;-0.008908507899
0.0900408076151;0.675671458893;9.77204047674;-0.0448703344248;0.997848176574;0.0469602755084;0.00896672293025
0.0823033663194;0.672909863737;9.77563360796;-0.0397452312291;0.998792977984;0.0288027705346;-0.00181772781732
0.0787404971271;0.665109180669;9.78143416187;-0.0373989688667;0.997954679561;0.0411021152129;-0.031597322588
0.0722197137599;0.66593714593;9.79109578607;-0.0391413119913;0.990809009277;-0.12049845993;-0.0473876142663
0.0595968802821;0.665465657814;9.83386773527;-0.040689683389;0.998950245271;0.0131776273961;-0.0164044894494
0.0525256877359;0.668481430896;9.81702286283;-0.0383390719219;0.997888039574;0.0509545529235;0.0123777855437
0.0424638818958;0.65349414247;9.83915028484;-0.0386997356735;0.998365892478;0.0420454568014;0.000234001671996
0.0396745542272;0.653051418891;9.83024262692;-0.0370836947877;0.995993264128;0.0797004372264;0.0164334323403
0.0424598878456;0.654859761395;9.86641166953;-0.0366078390425;0.997488053799;0.0595090243453;0.0116672477379
0.0486977806638;0.656325660712;9.88496594704;-0.0290388276015;0.99656623766;0.0733198491131;-0.0252325221477
0.0631874700057;0.645963246378;9.87778407013;-0.0302627796823;0.99814548926;0.0384977985758;0.0361616639766
0.0635289316184;0.649288835639;9.91370380634;-0.0307139476412;0.998132601777;0.0472276429376;0.0236117011725
0.0732090268713;0.64626028329;9.98641917294;-0.0322511627788;0.99709129915;0.0620938145943;0.0302185679291
0.0829445274978;0.638915084426;9.98668972173;-0.0277721129717;0.992512255189;-0.11641067103;-0.0244272125295
0.0808609711287;0.636474901874;9.98199260082;-0.0296222765;0.998344694229;0.0490106075112;-0.00532471520819
0.0812234008516;0.640035944558;9.96841578959;-0.0324080065706;0.996064708179;0.0679006533187;0.0468435642272
0.0811192647455;0.646496358011;10.0000586943;-0.0345542766952;0.994801512463;0.0863226729981;0.0415252801314
0.0777078797889;0.662377559886;10.0727604238;-0.0349028051074;0.995201515786;0.0913646156351;-0.0028712685882
0.0933301027343;0.663205134188;10.0770243312;-0.0373494040961;0.997288830614;0.0632451890187;0.00447843853088
0.0920901685201;0.672944015556;10.0909167116;-0.0421054103045;0.997696758158;0.0502339937717;-0.0174602134609
0.0974159576282;0.672442309797;10.1009042838;-0.0437261045684;0.997454632366;0.0542507246215;0.0151374710295
0.108622342878;0.675033987516;10.0767813014;-0.0427474020244;0.997780384241;0.0475501148127;-0.0185997587505
0.120515288289;0.661634956457;10.1095458809;-0.0414519591135;0.991387656308;-0.123248131931;-0.0155611047288
0.134756260763;0.663986834284;10.1227896141;-0.0400492570946;0.995274141962;-0.0861721753071;-0.0199948881079
0.144258029792;0.644175940973;10.0126749292;-0.0389013118153;0.995743606087;0.0510278405622;0.0661628170808
0.159970616084;0.645352993299;10.1230726578;-0.0373093291185;0.997207247536;0.0646497200376;0.00247651390267
0.163002758472;0.649903266032;10.0542536942;-0.0298106468191;0.988679636837;-0.130167700218;-0.0684125051394
0.181495490254;0.646565142419;10.1155384067;-0.0306807940735;0.990612333092;-0.126906765597;-0.0405039164351
0.183214135819;0.652964107569;10.136200534;-0.0274712411355;0.998563309769;0.0458125483389;-0.00422583810906
0.189470535627;0.656028910809;10.1672317213;-0.0288050831606;0.998178416418;0.0520070993848;0.0102653687202
0.179340056735;0.649886863307;10.0732122071;-0.0356346277458;0.99555262856;0.0690276831535;0.0532946154037
0.177949335418;0.649969508237;10.0647507311;-0.0355518151573;0.994836056067;0.0783594468033;0.0538245955447
0.175194245947;0.665175981447;10.1749423469;-0.0378173725694;0.998000679909;0.0485754991908;-0.0143146816575
0.172338998111;0.659422778038;10.1659471927;-0.0326662351603;0.997622759448;0.0606655621873;-0.00119853101688
0.163990399594;0.666030607237;10.1740435212;-0.0436112423466;0.998248281675;0.0397850038343;-0.00394729564988
0.164964898562;0.660296014029;10.1572232943;-0.045085727035;0.998347484144;0.03139183322;0.0168561836842
0.163510325954;0.654106093629;10.1294557417;-0.0423218266913;0.995830045539;0.0694555296303;0.0413196417222
0.164030218544;0.665765895784;10.157191175;-0.0429655451377;0.990183520853;-0.121470718738;-0.0541795298113
0.16407812278;0.683019763213;10.1408792788;-0.0424595255399;0.98787668601;-0.140044657703;-0.0518105759271
0.174743099364;0.686426204904;10.1650576473;-0.0398028908717;0.996853506302;0.067785805414;0.010193205394
0.173823323563;0.694490302633;10.1544808027;-0.0403844622943;0.998202686528;0.0384713417255;-0.0219191167328
0.163874454318;0.681372457583;10.078173473;-0.0379058041968;0.987028146695;-0.136971154828;-0.0746825976109
0.16500272716;0.695397080483;10.1646548724;-0.0440397710054;0.998205090741;0.0405350767175;-0.00200073588513
0.166093836249;0.693025111247;10.1617875871;-0.0430549126589;0.993380440851;-0.102937090538;-0.0273043883137
0.16411064937;0.693741049893;10.1462119292;-0.0445372181474;0.990210711978;-0.129095605701;-0.0288705156169
0.163741658748;0.695290899883;10.1369916394;-0.0439423167106;0.998214155945;0.0401523537412;-0.00503588741506
0.159458321212;0.703102456481;10.112544034;-0.0415019832607;0.99694662501;0.0613735701356;0.0246636809098
0.163681099865;0.712633149776;10.053279796;-0.0370556139723;0.987775908165;-0.134750452062;-0.0690503612614
0.167033413684;0.713291749495;10.0681034068;-0.0353261072461;0.987133856651;-0.146448651443;-0.0535873836946
0.165576600737;0.723093286691;10.1318318996;-0.040503021396;0.992136429988;-0.114941572879;-0.0285174397794
0.168712880473;0.730336126319;10.1220426591;-0.0340002577023;0.989055963446;-0.141174796138;-0.0261143750328
0.162515816784;0.729285267119;10.0587477906;-0.0337184003573;0.988548539439;-0.129582218661;-0.069593844971
0.161978429999;0.723924629272;10.1196784517;-0.0405409990793;0.997141100624;0.0625833498906;0.0122219947768
0.153191962871;0.728364766534;10.0900199891;-0.0368189319396;0.98749200606;-0.143093354316;-0.0550290484151
0.15670017319;0.732799282727;10.1354554425;-0.0373491894677;0.996598087988;0.0730917767991;0.00740818662369
0.15764561596;0.736048029631;10.1423275934;-0.0371221169174;0.997414330503;0.0612619470455;0.00579444446612
0.161193181672;0.733649701976;10.1119232734;-0.0414848461305;0.995730847851;0.0748874243718;0.0345102861601
0.163981876702;0.731910048064;10.1160717181;-0.0403735742822;0.988321694292;-0.132134630037;-0.0642700757473
0.170667019987;0.727041934937;10.1489489364;-0.0466269758984;0.998286757871;0.035302062739;0.00179959551197
0.177377799104;0.72749741494;10.1726873977;-0.0455225197762;0.997377879091;0.0560678096717;0.00463327233337
0.18152503133;0.723964540122;10.1571096159;-0.0453888500596;0.992126908442;-0.11215554845;-0.032329286831
0.183853884646;0.7178131273;10.111762261;-0.0455511959416;0.995927704574;0.0731180547683;0.0265865732597
0.181389815506;0.723096009498;10.1502060522;-0.0444921410422;0.991202203844;-0.119064997519;-0.0369075445723
0.188872341081;0.71661551547;10.1244297409;-0.0394816340372;0.996418126595;0.0747768031182;-0.000739784870265
0.202130427398;0.721343478518;10.1281175438;-0.0396611181903;0.995290518686;0.088316195263;0.00490191516103
0.209952282822;0.70157818242;10.070239221;-0.0384849668661;0.994873581256;0.0868958749237;0.0345625746284
0.223095302547;0.695238183058;10.0270062353;-0.0352410272868;0.995631241073;0.0733692677543;0.0457542603951
0.229644729245;0.692493548277;10.1173068502;-0.0404809418154;0.990280708468;-0.128696949909;-0.0338009891745
0.236860597162;0.691916266623;10.0784355617;-0.0362879922255;0.997498781337;0.0592786888804;-0.0128607890915
0.24218266809;0.681519826009;10.024431526;-0.0348440372914;0.995117534358;0.0825369227044;0.0414082391486
0.249782608029;0.670586169899;10.0625728128;-0.0395380580656;0.998032865967;0.0480401285366;-0.00769977042662
0.253012414485;0.661833136697;9.99948579443;-0.034594450221;0.994981384672;0.084511158347;0.0409039397159
0.260771038417;0.659211450233;10.0985055732;-0.0422955420864;0.993068360587;-0.106983832432;-0.0240993344124
0.257901003335;0.660143751916;10.075846913;-0.0403566808561;0.990013784561;-0.126624308278;-0.0470141387408
0.252944178537;0.657180461034;10.0795469777;-0.0394166135072;0.997246236731;0.0605289296424;-0.0168084080454
0.245629818883;0.656928185156;10.0989522816;-0.0439520177627;0.996864377002;0.0653793100873;0.00742831154496
0.243549879098;0.662620560287;10.130003885;-0.0449565096869;0.997558080197;0.0531018035491;0.00608172096859
0.240517144786;0.66348036992;10.0919976732;-0.0426603594805;0.996688992428;0.0685129202206;0.00985524558114
0.239471466116;0.664230650753;10.0822823188;-0.0409968140694;0.997497115788;0.0527483718814;0.0231597602255
0.230922140187;0.674427336236;10.1113334052;-0.0434657192439;0.997660738167;0.0524990451038;-0.00525671327003
0.226411419392;0.666845798049;10.0682275314;-0.0405979211491;0.995426362963;0.0761792161595;0.040925441266
0.225703541558;0.675451663633;10.1049222204;-0.0428036292644;0.997497362557;0.0560997883855;-0.00443562359001
0.220697113477;0.687031168265;10.1020493253;-0.0342636258923;0.996498796259;0.0762228111651;0.00249720920091
0.200419943701;0.695711181606;10.0911511841;-0.0419541279011;0.996293392722;0.0744311182398;0.00996671500908
0.200009030043;0.706058831344;10.1039432413;-0.0421355321423;0.99648513898;0.0722222127983;0.0050908449181
0.202823929434;0.715909977238;10.0595755387;-0.0398160185792;0.996023871169;0.0796285488713;0.00322907593323
0.196265242703;0.726888592424;10.1356665302;-0.0453935488327;0.99097550236;-0.122512655174;-0.0299604534278
0.189021846201;0.725246651359;10.0726754706;-0.0442152950457;0.996321636182;0.0732300184591;0.00505661514759
0.189042382789;0.728556203525;10.0660798839;-0.0442488487821;0.994955009039;0.0874246343557;0.0215291123394
0.178174652906;0.737970374357;10.1011658961;-0.0456229753037;0.997659522046;0.0509303996766;0.000341444174417
0.182173188003;0.736312108636;10.056163399;-0.0492294546144;0.997157352861;0.0508777351159;0.0257901241252
0.194051710789;0.74194145832;10.110169639;-0.0456802261368;0.997897576509;0.0440640818274;-0.0131187053902
0.196989647059;0.739339290132;10.0619696317;-0.0481059678594;0.997440335979;0.05039883461;0.0160794741032
0.193293963714;0.744717693075;10.0644206336;-0.0462686094097;0.998638331095;0.0214018980209;0.0110751168101
0.195609024839;0.747110785023;10.0550353615;-0.0462345043208;0.997225999375;0.0567531821613;0.0134815835472
0.201022737903;0.744585895974;9.99769249008;-0.0440418955423;0.995493013183;0.0838777516668;-0.00430057169323
0.213143470683;0.735556499344;9.9760194916;-0.0443810797702;0.995383814177;0.0812282188921;0.0253645163139
0.211975875254;0.736962805899;9.96125060336;-0.0447137460925;0.99640802564;0.0629995249919;0.0346812226181
0.210123208457;0.740794546141;9.98508060933;-0.0417747994317;0.995046006641;0.0839408503935;0.0330491215586
0.218814460971;0.745280300345;9.98437866703;-0.0393916571254;0.998271816076;0.0432351428191;-0.00569218791525
0.232131972219;0.747294040309;9.96305986782;-0.0405864802581;0.996813315466;0.0686288301823;0.00245670461007
0.237183783825;0.755180988353;9.96045568049;-0.0334873694199;0.997079588207;0.0682450516982;0.00731462847904
0.239770293342;0.755645326889;9.9634155373;-0.0334467684669;0.996256452057;0.0775636130621;0.0183924262387
0.246845475813;0.755094494359;9.93730043012;-0.0379887779211;0.995528396207;0.0834118499314;0.0228588798813
0.254640760439;0.780118881491;9.96808590545;-0.037043462333;0.997764782329;0.0553915831166;-0.00499935625764
0.252466016957;0.780749411477;9.92903459498;-0.034613275654;0.996773128516;0.066964751618;0.0275857473638
0.254841566155;0.787888956405;9.96572833404;-0.0349987979489;0.997775478319;0.0558280352342;-0.0101197573559
0.249924881306;0.800018133708;9.92040815461;-0.0373614716874;0.996878626218;0.0682748713587;0.0132539414296
0.254877848555;0.809851479874;9.91485355526;-0.037038260509;0.998602018808;0.0370593352484;0.00698433697509
0.260012183061;0.818150786144;9.89993495039;-0.0402197960558;0.997136636114;0.0629273802609;0.0118760994509
0.260348455681;0.822249581985;9.85858968891;-0.0366935658917;0.995814919029;0.0749658149981;0.0372337997386
0.267062213315;0.848047666732;9.89990006984;-0.0311297219541;0.997651833984;0.0494398678801;-0.0357415447963
0.265047311467;0.852913749178;9.89650874545;-0.0332078539853;0.997536624317;0.0612035578288;0.00848799681018
0.258591261919;0.847881876042;9.79846167138;-0.0364432674299;0.994970690969;0.082008371533;0.044495385935
0.243042535278;0.85165323199;9.80803160877;-0.0356236341446;0.994483294913;0.0904868935146;0.0393199050375
0.236532036402;0.860916422089;9.85393576428;-0.0289775805879;0.997666440418;0.041804887767;-0.0455447565098
0.230257316641;0.864173723344;9.86646848728;-0.040154782268;0.996981726561;0.0663520194434;0.00352702150344
0.213856605545;0.868839972521;9.83799500346;-0.0421656861098;0.997269789266;0.0573084706417;0.019767688927
0.20541706812;0.871269014002;9.87192095033;-0.0422852817628;0.99829279122;0.0372257818682;0.0154174936246
0.192243826885;0.879473229423;9.88505213947;-0.042250338769;0.997675470998;0.053136536054;0.00592215998653
0.19474047922;0.88016116245;9.86645203712;-0.0428337291418;0.99736064659;0.0578100653399;0.00974723688587
0.18886284976;0.877948144625;9.87960000951;-0.0421506838475;0.997266016888;0.0581520366959;0.0173825211061
0.184880240302;0.880091572228;9.87874352728;-0.0411966128203;0.997551180864;0.054381362204;0.0153996134218
0.184727400635;0.884630009444;9.89994962538;-0.0408529579488;0.997393076939;0.0579154267183;0.0135605770083
0.180991411635;0.875406955339;9.88353277072;-0.0387940138032;0.986955811536;-0.143790418997;-0.0611356358685
0.180196666299;0.86922307371;9.85507796093;-0.0384663034461;0.995440830041;0.0766730636469;0.0417029818816
0.178328858878;0.87548126243;9.91017938727;-0.0393737257297;0.998234872441;0.042317773756;0.0136402048948
0.17532879003;0.876154889615;9.97022160233;-0.0379219360418;0.996978601754;0.0655591708971;-0.0172507832549
0.17734371073;0.874000299026;9.97151279583;-0.039404795991;0.996962504219;0.0646474106273;-0.0182685394544
0.176503845769;0.877706530924;9.95877405297;-0.0368113927257;0.996622101235;0.0730945078135;0.00681920987421
0.180126840458;0.868995936567;9.9472589879;-0.0415723072926;0.988704242079;-0.14296264508;-0.0172437546112
0.18490846858;0.874044755021;9.94474930091;-0.0410919856234;0.996294332091;0.0730670531061;0.019242097383
0.190876954672;0.861286651321;9.95811806381;-0.0341283893384;0.997773548914;0.0535509777191;0.0203835942459
0.19709664237;0.865228555319;9.94631335089;-0.03648880412;0.989158867275;-0.133048582913;-0.0503127921189
0.213837776473;0.864780014977;9.94758619245;-0.0330593126495;0.995804518342;0.0777333456671;0.035184798825
0.208891773034;0.853911100725;9.97677920167;-0.0317851458724;0.989329558958;-0.136692469283;-0.0391394572619
0.213828288298;0.854515008276;10.0019332198;-0.0336993181716;0.990371654789;-0.129063937988;-0.0370248734707
0.208473555345;0.851132107665;9.96048638229;-0.033724080639;0.996215652498;0.0761703017977;0.024802121436
0.197206894388;0.843570599231;9.99458768655;-0.0376372653292;0.986669601006;-0.156159286912;-0.0260923709356
0.200478259762;0.833399609368;9.9562052837;-0.0336469745743;0.995676180382;0.078168300737;0.0372362952201
0.19101202366;0.831700859435;10.0041294985;-0.0355625758454;0.996860014826;0.070435105778;-0.00665656929621
0.177642697192;0.817323312884;10.0374025251;-0.037218599704;0.997407654401;0.0613192903555;-0.00571764009648
0.172281262197;0.808880709841;10.0135822233;-0.0339315285653;0.998088773144;0.0516376636953;0.00100198835681
0.172797090796;0.795645498904;10.0112411918;-0.0349069380502;0.997016627034;0.0674108650507;-0.0139687639772
0.157155374382;0.77284400832;9.98227802377;-0.0316447393773;0.995852365569;0.081376459913;0.0255841402666
0.155860246552;0.755291926704;10.0188974182;-0.0336578101469;0.997236150792;0.0658249466352;0.00736802348456
0.142949152163;0.747375203692;10.0141591033;-0.0376946646271;0.996276320318;0.076278120283;-0.0139375104516
0.147396738256;0.73267886785;10.0070691854;-0.0386850879322;0.990499491194;-0.131956754901;0.00127935641757
0.150470005391;0.710942105079;9.98727531915;-0.035168066906;0.991463561522;-0.121425222921;-0.0319237918061
0.144363844214;0.688384022608;9.9713245916;-0.0345444279168;0.996829337987;0.0644807048918;0.0313080201464
0.13070820724;0.645286329976;9.98153374408;-0.0349820066831;0.994648889069;-0.0932195507395;-0.0275674090614
0.128627879599;0.638936763524;9.94876736031;-0.0375508992997;0.997202704435;0.0510499645965;0.0396307625862
0.118079748506;0.606291980289;9.9183344867;-0.0396723585898;0.995651457067;0.0774813537247;0.0331801119449
0.115572108448;0.58579686337;9.90525237568;-0.0423648956819;0.997713274373;0.0179328077903;0.0495161807752
0.0987857993839;0.5771375177;9.97556104668;-0.0442257555751;0.990493035436;0.129042974506;0.0177634464089
0.0888891312212;0.52149807412;9.86281575297;-0.0429115963065;0.996447924991;-0.0152045978429;-0.0708445332313
0.0856959702706;0.518531649552;9.95848120373;-0.0474078024118;0.99279117857;0.106878335436;0.0263665970162
0.0882152860866;0.513874148745;9.96283494437;-0.0436921366809;0.9916214111;0.121497910531;0.00402889281613
0.0814493002605;0.476114217822;9.91017590457;-0.0428674268512;0.995548700785;-0.0390382654338;-0.0743046560624
0.0849858265295;0.490898026109;9.88126016868;-0.0424240368564;0.996318712486;0.00926840221092;0.0739142812143
0.0872214054023;0.470099000834;10.0242134628;-0.0392490593593;0.985518437793;-0.164503037984;-0.0123154619778
0.0777711991584;0.480865494626;10.0227760067;-0.0367640024458;0.996927556716;0.0617847104505;-0.0310886529114
0.0772183782642;0.474492506082;9.90783839475;-0.0340465577699;0.996003996851;0.0243763223814;0.0788838707745
0.0806065005719;0.454366538429;9.80725608929;-0.0317864062552;0.994321163842;0.00429407408254;0.10147220526
0.0751821449286;0.430372355763;10.1477549637;-0.0253185820227;0.994817312813;-0.0966358121161;-0.0189473836795
0.0755836883042;0.459825815094;9.97044886981;-0.0276218508162;0.995255644823;-0.0341443020715;0.0868182091575
0.0768650675633;0.443777792611;10.0623969094;-0.0232817785046;0.997620725741;-0.0019124886911;0.0648628456703
0.0859187153146;0.445821309329;10.0959104395;-0.0140630165726;0.992772789156;0.119165977993;0.00197240099987
0.0915462256225;0.434283172526;10.1769181334;-0.0266256045357;0.988768363763;-0.14557151895;-0.020907722881
0.0922848608056;0.43032647814;9.98615770997;-0.0200168329907;0.99368730815;-0.00416534624694;-0.110306436393
0.100176669229;0.414376882134;10.2081282166;-0.00609550007873;0.991939892514;0.126142387331;-0.0103049811934
0.0954295264944;0.440968778421;10.1737410186;-0.0180527324362;0.995929665297;0.0725700550801;0.0503168733018
0.0901641841055;0.413038004813;10.1327564274;-0.0202877228332;0.986720710508;-0.145820022231;-0.0686088104602
0.0913696999552;0.460455490392;10.1919826835;-0.0236970214324;0.991776345587;0.121436579321;0.0327305470906
0.0904718188082;0.479378035265;10.1870935704;-0.0233564834367;0.989932321477;-0.130058332989;-0.0507277399222
0.092506838572;0.481047649114;10.1454677689;-0.018684352708;0.991468226265;-0.106304182589;-0.0730826383991
0.0912813915045;0.481008722726;10.0088494801;-0.0212657679041;0.992938083719;-0.0349493377544;-0.111356512186
0.0920938743759;0.463459970129;10.2277356613;-0.02825087493;0.999211466332;0.0277062014697;0.00327108783382
0.0986336978256;0.513891045364;10.2159049533;-0.0271246841328;0.996938453307;0.0673048372687;0.02912096681
0.102165668624;0.495099562851;10.2086511719;-0.0317705987502;0.998095542083;0.0481623066312;0.0218245308793
0.100594781113;0.493351612173;10.1328339971;-0.0342702893337;0.995945202017;0.0622489544559;0.055170368108
0.0989817346848;0.490000035668;10.1971084621;-0.0394183715966;0.99792369267;0.0509335016999;-0.000523442993045
0.103780030768;0.493419137196;10.1913838847;-0.0348012638026;0.993672968926;-0.090746558397;-0.0562846782267
0.0976185551414;0.498027043297;10.2048668288;-0.0438301918798;0.995723055816;0.0796039064838;0.0166651873169
0.0982138056336;0.509020120743;10.0606441658;-0.0425210488528;0.994503683566;-0.0394585812586;-0.0871630893345
0.0907699261897;0.482050356375;10.186743487;-0.0475183928043;0.991350521322;0.122160051742;0.0065626198472
0.0865321816877;0.48036547922;9.943103848;-0.0467606016761;0.992203733547;-0.0176468427519;-0.114165608691
0.0813275132656;0.458078888658;10.0471969956;-0.0452044718593;0.994445798377;-0.0262585705943;-0.0913487672837
0.0839514440733;0.498974301656;10.2204091744;-0.0483850331053;0.992265752359;0.114313233582;0.000223369447337
0.07673275367;0.459902699447;10.1595734146;-0.0499991245059;0.995991398486;0.0629589770566;0.0392095511126
0.0752945411163;0.484286258704;10.1717918571;-0.0494353156566;0.989449747531;0.132883361862;0.0297885685722
0.0654445053399;0.467578712916;10.1333881405;-0.0466199043277;0.996234165185;-0.0233987913056;-0.0692572682362
0.0710464164148;0.500001816469;10.2562542778;-0.0454991457405;0.99775915992;0.048155428126;0.00935634946249
0.0661114730605;0.498921071423;10.2424585778;-0.0450977477647;0.996198210915;0.073854148241;0.0100440282289
0.0604958080933;0.476703025411;10.0431413417;-0.043852999635;0.993411258079;-0.017132341673;-0.104486695866
0.0548587784566;0.500658937232;10.2461988961;-0.045244369336;0.994386871033;0.0955967865666;0.00299201591656
0.0507512001987;0.503148571466;10.2349324737;-0.0423437026563;0.990570010604;0.12932953866;0.0158724720073
0.0512315448157;0.464854861679;9.90792729838;-0.0394478139235;0.990327012727;-0.0130546756242;-0.132385245717
0.0547154485839;0.470508995706;10.0681130531;-0.0386656221675;0.994795675352;0.010038733113;0.0937323732807
0.0540139756699;0.464900029367;10.1208616365;-0.0349331208507;0.994598608011;0.00464162584275;-0.0976306371934
0.0551998995278;0.458376580066;10.2555571708;-0.0340147377358;0.993482258756;0.103235528923;0.0343281913523
0.0564997708715;0.504564284811;10.3076102863;-0.0338713045417;0.991276452874;0.127195419871;-0.00671221799404
0.0590111411863;0.478360574309;10.0788087461;-0.0266090526613;0.994558269198;0.000323812426171;-0.100725878663
0.0684682678315;0.500198488647;10.315955833;-0.0251193508882;0.992176120911;0.122192371105;0.00495860349217
0.0608945884423;0.459090739095;10.1084860866;-0.0283913566418;0.995764084635;-0.0139922115978;0.0863251796086
0.0575476814923;0.466865346003;10.286315034;-0.0283304180631;0.990639088525;0.131703748566;0.0220387456935
0.0544341548853;0.493518784896;10.2848903429;-0.0317672084125;0.994953027846;0.0902117045569;0.0303507036208
0.0464461862274;0.483234693677;10.0571051746;-0.0340067919117;0.992994577332;-0.026255005125;0.11007262239
0.0430235287051;0.458756323538;10.2579204687;-0.028848689216;0.99267225333;0.117311783355;-0.00273789813982
0.0350332712304;0.465096552264;10.0252740486;-0.0395417344747;0.992833693544;0.000525360056795;0.112771593033
0.0274123623616;0.516045114511;10.291406971;-0.0345221736029;0.995434530338;0.0872448643572;-0.0175113958398
0.0266793205678;0.485842326044;10.2194985745;-0.0297411032848;0.997967253993;0.0277518852215;-0.0490577170263
0.0202089228548;0.476168906706;10.0550095077;-0.0314960166027;0.992306537341;-0.0311659909809;-0.115604575581
0.0179137957203;0.457252951972;10.1162269199;-0.0339679835154;0.994828959826;0.0111604111997;0.0950629370909
0.0150848513443;0.505774462453;10.3067042274;-0.0341039657446;0.985208790592;-0.166243634078;-0.0237405262975
-0.000891580173144;0.46830026663;10.3066211717;-0.040527496764;0.992194774484;-0.115460539166;-0.0239982371863
-0.00848539241473;0.497333718286;10.1660968958;-0.0367702008336;0.994848570352;-0.00703560250055;-0.0942060226174
-0.00632998514815;0.514381574584;10.3536975883;-0.0402401934488;0.992440445131;0.115567834617;0.00931478940337
-0.00298051970485;0.509564442425;10.3178778549;-0.0426019668885;0.990756739466;-0.123007142628;-0.0381496852273
-0.0074720563358;0.518878982227;10.2803298456;-0.0432377795228;0.996345290412;-0.0102749366291;-0.0729450640811
-0.00669375383367;0.466904046714;10.3479530128;-0.0419398300881;0.996642411068;-0.0482345424294;-0.0511701478424
-0.00799342117395;0.508160265757;10.393889174;-0.0454235861973;0.994310413664;0.0962549471009;-0.00429933189561
-0.0258386087069;0.515015367586;10.357938629;-0.0532913370365;0.986528648066;-0.154537017459;-0.00629048305402
-0.0353272593696;0.542276310841;10.2059560754;-0.0560145396103;0.996136256328;-0.00123509991253;-0.0676269525336
-0.0604672647179;0.512508548522;10.1663361062;-0.0643854764422;0.993800643685;-0.0194195470324;-0.0885306287577
-0.0811533435548;0.547467110015;10.3133887268;-0.0769882188926;0.992305053285;0.0945920284706;0.0213504924403
-0.115766945428;0.549314957674;10.2815068485;-0.0910265343962;0.99413910114;0.0487002886744;0.0320920473544
-0.142452482728;0.522704761342;10.1706537386;-0.0993869623226;0.992605188797;-0.0305578189014;-0.0626369746883
-0.180264928656;0.56199826511;10.2689760746;-0.115559281848;0.990985153827;0.0651091793112;0.0188486615837
-0.2135723349;0.525274590285;10.2450754851;-0.129005288328;0.989298389216;0.0644308559088;0.022248538954
-0.24139139134;0.548709870758;10.2022859968;-0.143094802277;0.987744559209;0.0553811567821;0.028591795806
-0.241550984705;0.520816076543;10.2100046909;-0.142528256004;0.986684256263;0.0754289860824;0.0212212803774
-0.227772933194;0.539113869864;10.1984614065;-0.133657246042;0.983345167856;0.120941782046;0.0232617022333
-0.215041241133;0.571663806388;10.2001147579;-0.128471804012;0.990993499358;0.0369536847153;-0.00782975033831
-0.20792197528;0.54962575069;10.1854508021;-0.121283132301;0.991829209654;0.0391287276515;-0.00584494379296
-0.188975310231;0.547382076183;10.1452149547;-0.115939156213;0.991756340318;0.0409796515986;-0.0360297328676
-0.169257083016;0.567943517423;10.1589495697;-0.11167243981;0.988655249428;0.0984254684785;0.0200621813332
-0.133931910501;0.587609837478;10.0642414294;-0.100562924056;0.992395555214;-0.0125075206224;-0.0698693224906
-0.113372523415;0.552373429765;10.1212200842;-0.0966644983137;0.994273391162;0.0151362657225;-0.0429801332374
-0.0848382819521;0.533284476372;10.1309135029;-0.0907973174378;0.989923560289;0.107370899441;0.0166937678053
-0.0480754196651;0.556755544421;9.80795210124;-0.0743674134901;0.989881390849;-0.0163707293081;-0.119734368846
-0.0141811304507;0.562223601872;10.0847627727;-0.0691197068396;0.989008658124;0.129869946516;0.0147694709935
0.0200366937196;0.526961948405;9.88364616544;-0.0517747658553;0.993495529631;-0.0262435043082;-0.0979657322977
0.0505550118246;0.541086200961;9.93307850882;-0.0511009963746;0.994974479478;-0.0323726715014;-0.0797902468816
0.0615364499725;0.572195574393;9.9069069984;-0.0477827683361;0.994208717598;-0.0362139102451;-0.0891873623771
0.0681991239229;0.597847695511;10.0321404567;-0.0478677542607;0.991486031082;0.120586408346;0.0110926278901
0.0647185537916;0.547552728183;9.73244805377;-0.043603126093;0.990633874249;-0.0300299689924;-0.125863003094
0.0664517969374;0.559579215852;10.0556060726;-0.0429966152265;0.991041820343;0.125738675583;0.0133111559459
0.0630021463367;0.550056159736;10.0650836832;-0.0407457623266;0.992321547566;0.11633323173;0.01021314267
0.062327279574;0.509275753391;9.92501642782;-0.0400391038988;0.995799066243;-0.010556658519;0.0816679055069
0.0650910765787;0.570349832017;10.0931893962;-0.0422920380853;0.994064460202;0.0978512231168;0.0217340887347
0.0613248326093;0.524719673017;9.95811389545;-0.0386461533227;0.996094598899;-0.000912595942121;0.0793800481651
0.0575967067799;0.572620144643;10.1726045252;-0.0319761431087;0.995799016969;-0.0856710248267;-0.00472436039746
0.0580911074968;0.511850257035;9.88839120012;-0.0329122243795;0.992147450706;0.00734514003151;-0.120441979648
0.063692379458;0.519777118488;10.15068211;-0.0330608726358;0.989770709612;0.135296006378;0.0309178225676
0.0655657331613;0.522179901602;10.0145428414;-0.0319266922036;0.99438511845;-0.0353996112301;-0.0944763994588
0.0617457916896;0.498299115805;10.1282227741;-0.0275205188275;0.995746151081;-0.0479199445296;-0.0737285736199
0.0651093830593;0.539719970359;10.1936436232;-0.0285255808407;0.992056321766;0.12070635975;0.0209885778021
0.05659189119;0.516167809435;10.2091683313;-0.0237692798265;0.99237705487;-0.112409704973;-0.0445742137592
0.0436664734034;0.480212174904;10.0937100269;-0.0239082003063;0.995065086922;-0.0157461075698;-0.0950048990521
0.0404923706185;0.477504161915;10.2430709802;-0.0251244440342;0.99630909016;0.0797777726401;0.0192993825956
0.0394844598135;0.478096699367;10.246783011;-0.0207033644044;0.983054381932;-0.178638824162;-0.035547480472
0.0279116510532;0.473544959323;10.2475179059;-0.025834148522;0.997074520507;0.0686525963911;0.0214899589275
0.0348086652987;0.572613230342;10.2845678523;-0.0301699977424;0.995933833638;0.0815705867375;0.0234906285809
0.0425912305093;0.525790112014;10.2436506253;-0.0301366257581;0.997686829491;0.0515251977224;-0.0325258058597
0.0476488116942;0.55015672377;10.3383162632;-0.0347825839201;0.988139013157;-0.149296365655;-0.0090585724234
0.0540775917924;0.569177651143;10.3263053024;-0.0326873201301;0.990295442007;0.132763578122;0.0249060026454
0.0603943677127;0.56487508524;10.1504910491;-0.0277092068207;0.995254566895;0.00132906302906;-0.0932672532173
0.082272394919;0.589925091028;10.2933315604;-0.0278283992498;0.997066909196;0.0702208850721;0.0123363722689
